629933.34 528965.12 0.00
629933.34 528875.12 0.00
629933.34 528785.12 0.00
629933.34 528695.12 0.00
629933.34 528605.12 0.00
629933.34 528515.12 0.00
629933.34 528425.12 0.00
629933.34 528335.12 0.00
629933.34 528245.12 0.00
629933.34 528155.12 0.00
630023.34 528965.12 0.00
630023.34 528875.12 0.00
630023.34 528785.12 0.00
630023.34 528695.12 0.00
630023.34 528605.12 0.00
630023.34 528515.12 0.00
630023.34 528425.12 0.00
630023.34 528335.12 0.00
630023.34 528245.12 0.00
630023.34 528155.12 0.00
630023.34 528065.12 0.00
630023.34 527975.12 0.00
630023.34 527885.12 0.00
630023.34 527795.12 0.00
630023.34 527705.12 0.00
630023.34 527615.12 0.00
630023.34 527525.12 0.00
630023.34 527435.12 0.00
630023.34 527345.12 0.00
630023.34 527255.12 0.00
630023.34 527165.12 0.00
630023.34 527075.12 0.00
630023.34 526985.12 0.00
630023.34 526895.12 0.00
630023.34 526805.12 0.00
630023.34 526715.12 0.00
630023.34 526625.12 0.00
630023.34 526535.12 0.00
630023.34 526445.12 0.00
630113.34 528965.12 0.00
630113.34 528875.12 0.00
630113.34 528785.12 0.00
630113.34 528695.12 0.00
630113.34 528605.12 0.00
630113.34 528515.12 0.00
630113.34 528425.12 0.00
630113.34 528335.12 0.00
630113.34 528245.12 0.00
630113.34 528155.12 0.00
630113.34 528065.12 0.00
630113.34 527975.12 0.00
630113.34 527885.12 0.00
630113.34 527795.12 0.00
630113.34 527705.12 0.00
630113.34 527615.12 0.00
630113.34 527525.12 0.00
630113.34 527435.12 0.00
630113.34 527345.12 0.00
630113.34 527255.12 0.00
630113.34 527165.12 0.00
630113.34 527075.12 0.00
630113.34 526985.12 0.00
630113.34 526895.12 0.00
630113.34 526805.12 0.00
630113.34 526715.12 0.00
630113.34 526625.12 0.00
630113.34 526535.12 0.00
630113.34 526445.12 0.00
630113.34 526355.12 0.00
630113.34 526265.12 0.00
630113.34 526175.12 0.00
630113.34 526085.12 0.00
630113.34 525995.12 0.00
630113.34 525905.12 0.00
630113.34 525815.12 0.00
630113.34 525725.12 0.00
630113.34 525635.12 0.00
630113.34 525545.12 0.00
630113.34 525455.12 0.00
630113.34 525365.12 0.00
630203.34 528965.12 0.00
630203.34 528875.12 0.00
630203.34 528785.12 0.00
630203.34 528695.12 0.00
630203.34 528605.12 0.00
630203.34 528515.12 0.00
630203.34 528425.12 0.00
630203.34 528335.12 0.00
630203.34 528245.12 0.00
630203.34 528155.12 0.00
630203.34 528065.12 0.00
630203.34 527975.12 0.00
630203.34 527885.12 0.00
630203.34 527795.12 0.00
630203.34 527705.12 0.00
630203.34 527615.12 0.00
630203.34 527525.12 0.00
630203.34 527435.12 0.00
630203.34 527345.12 0.00
630203.34 527255.12 0.00
630203.34 527165.12 0.00
630203.34 527075.12 0.00
630203.34 526985.12 0.00
630203.34 526895.12 0.00
630203.34 526805.12 0.00
630203.34 526715.12 0.00
630203.34 526625.12 0.00
630203.34 526535.12 0.00
630203.34 526445.12 0.00
630203.34 526355.12 0.00
630203.34 526265.12 0.00
630203.34 526175.12 0.00
630203.34 526085.12 0.00
630203.34 525995.12 0.00
630203.34 525905.12 0.00
630203.34 525815.12 0.00
630203.34 525725.12 0.00
630203.34 525635.12 0.00
630203.34 525545.12 0.00
630203.34 525455.12 0.00
630203.34 525365.12 0.00
630293.34 528965.12 0.00
630293.34 528875.12 0.00
630293.34 528785.12 0.00
630293.34 528695.12 0.00
630293.34 528605.12 0.00
630293.34 528515.12 0.00
630293.34 528425.12 0.00
630293.34 528335.12 0.00
630293.34 528245.12 0.00
630293.34 528155.12 0.00
630293.34 528065.12 0.00
630293.34 527975.12 0.00
630293.34 527885.12 0.00
630293.34 527795.12 0.00
630293.34 527705.12 0.00
630293.34 527615.12 0.00
630293.34 527525.12 0.00
630293.34 527435.12 0.00
630293.34 527345.12 0.00
630293.34 527255.12 0.00
630293.34 527165.12 0.00
630293.34 527075.12 0.00
630293.34 526985.12 0.00
630293.34 526895.12 0.00
630293.34 526805.12 0.00
630293.34 526715.12 0.00
630293.34 526625.12 0.00
630293.34 526535.12 0.00
630293.34 526445.12 0.00
630293.34 526355.12 0.00
630293.34 526265.12 0.00
630293.34 526175.12 0.00
630293.34 526085.12 0.00
630293.34 525995.12 0.00
630293.34 525905.12 0.00
630293.34 525815.12 0.00
630293.34 525725.12 0.00
630293.34 525635.12 0.00
630293.34 525545.12 0.00
630293.34 525455.12 0.00
630293.34 525365.12 0.00
630383.34 528965.12 0.00
630383.34 528875.12 0.00
630383.34 528785.12 0.00
630383.34 528695.12 0.00
630383.34 528605.12 0.00
630383.34 528515.12 0.00
630383.34 528425.12 0.00
630383.34 528335.12 0.00
630383.34 528245.12 0.00
630383.34 528155.12 0.00
630383.34 528065.12 0.00
630383.34 527975.12 0.00
630383.34 527885.12 0.00
630383.34 527795.12 0.00
630383.34 527705.12 0.00
630383.34 527615.12 0.00
630383.34 527525.12 0.00
630383.34 527435.12 0.00
630383.34 527345.12 0.00
630383.34 527255.12 0.00
630383.34 527165.12 0.00
630383.34 527075.12 0.00
630383.34 526985.12 0.00
630383.34 526895.12 0.00
630383.34 526805.12 0.00
630383.34 526715.12 0.00
630383.34 526625.12 0.00
630383.34 526535.12 0.00
630383.34 526445.12 0.00
630383.34 526355.12 0.00
630383.34 526265.12 0.00
630383.34 526175.12 0.00
630383.34 526085.12 0.00
630383.34 525995.12 0.00
630383.34 525905.12 0.00
630383.34 525815.12 0.00
630383.34 525725.12 0.00
630383.34 525635.12 0.00
630383.34 525545.12 0.00
630383.34 525455.12 0.00
630383.34 525365.12 0.00
630473.34 528965.12 0.00
630473.34 528875.12 0.00
630473.34 528785.12 0.00
630473.34 528695.12 0.00
630473.34 528605.12 0.00
630473.34 528515.12 0.00
630473.34 528425.12 0.00
630473.34 528335.12 0.00
630473.34 528245.12 0.00
630473.34 528155.12 0.00
630473.34 528065.12 0.00
630473.34 527975.12 0.00
630473.34 527885.12 0.00
630473.34 527795.12 0.00
630473.34 527705.12 0.00
630473.34 527615.12 0.00
630473.34 527525.12 0.00
630473.34 527435.12 0.00
630473.34 527345.12 0.00
630473.34 527255.12 0.00
630473.34 527165.12 0.00
630473.34 527075.12 0.00
630473.34 526985.12 0.00
630473.34 526895.12 0.00
630473.34 526805.12 0.00
630473.34 526715.12 0.00
630473.34 526625.12 0.00
630473.34 526535.12 0.00
630473.34 526445.12 0.00
630473.34 526355.12 0.00
630473.34 526265.12 0.00
630473.34 526175.12 0.00
630473.34 526085.12 0.00
630473.34 525995.12 0.00
630473.34 525905.12 0.00
630473.34 525815.12 0.00
630473.34 525725.12 0.00
630473.34 525635.12 0.00
630473.34 525545.12 0.00
630473.34 525455.12 0.00
630473.34 525365.12 0.00
630563.34 529055.12 0.00
630563.34 528965.12 0.00
630563.34 528875.12 0.00
630563.34 528785.12 0.00
630563.34 528695.12 0.00
630563.34 528605.12 0.00
630563.34 528515.12 0.00
630563.34 528425.12 0.00
630563.34 528335.12 0.00
630563.34 528245.12 0.00
630563.34 528155.12 0.00
630563.34 528065.12 0.00
630563.34 527975.12 0.00
630563.34 527885.12 0.00
630563.34 527795.12 0.00
630563.34 527705.12 0.00
630563.34 527615.12 0.00
630563.34 527525.12 0.00
630563.34 527435.12 0.00
630563.34 527345.12 0.00
630563.34 527255.12 0.00
630563.34 527165.12 0.00
630563.34 527075.12 0.00
630563.34 526985.12 0.00
630563.34 526895.12 0.00
630563.34 526805.12 0.00
630563.34 526715.12 0.00
630563.34 526625.12 0.00
630563.34 526535.12 0.00
630563.34 526445.12 0.00
630563.34 526355.12 0.00
630563.34 526265.12 0.00
630563.34 526175.12 0.00
630563.34 526085.12 0.00
630563.34 525995.12 0.00
630563.34 525905.12 0.00
630563.34 525815.12 0.00
630563.34 525725.12 0.00
630563.34 525635.12 0.00
630563.34 525545.12 0.00
630563.34 525455.12 0.00
630563.34 525365.12 0.00
630653.34 529055.12 0.00
630653.34 528965.12 0.00
630653.34 528875.12 0.00
630653.34 528785.12 0.00
630653.34 528695.12 0.00
630653.34 528605.12 0.00
630653.34 528515.12 0.00
630653.34 528425.12 0.00
630653.34 528335.12 0.00
630653.34 528245.12 0.00
630653.34 528155.12 0.00
630653.34 528065.12 0.00
630653.34 527975.12 0.00
630653.34 527885.12 0.00
630653.34 527795.12 0.00
630653.34 527705.12 0.00
630653.34 527615.12 0.00
630653.34 527525.12 0.00
630653.34 527435.12 0.00
630653.34 527345.12 0.00
630653.34 527255.12 0.00
630653.34 527165.12 0.00
630653.34 527075.12 0.00
630653.34 526985.12 0.00
630653.34 526895.12 0.00
630653.34 526805.12 0.00
630653.34 526715.12 0.00
630653.34 526625.12 0.00
630653.34 526535.12 0.00
630653.34 526445.12 0.00
630653.34 526355.12 0.00
630653.34 526265.12 0.00
630653.34 526175.12 0.00
630653.34 526085.12 0.00
630653.34 525995.12 0.00
630653.34 525905.12 0.00
630653.34 525815.12 0.00
630653.34 525725.12 0.00
630653.34 525635.12 0.00
630653.34 525545.12 0.00
630653.34 525455.12 0.00
630653.34 525365.12 0.00
630743.34 529055.12 0.00
630743.34 528965.12 0.00
630743.34 528875.12 0.00
630743.34 528785.12 0.00
630743.34 528695.12 0.00
630743.34 528605.12 0.00
630743.34 528515.12 0.00
630743.34 528425.12 0.00
630743.34 528335.12 0.00
630743.34 528245.12 0.00
630743.34 528155.12 0.00
630743.34 528065.12 0.00
630743.34 527975.12 0.00
630743.34 527885.12 0.00
630743.34 527795.12 0.00
630743.34 527705.12 0.00
630743.34 527615.12 0.00
630743.34 527525.12 0.00
630743.34 527435.12 0.00
630743.34 527345.12 0.00
630743.34 527255.12 0.00
630743.34 527165.12 0.00
630743.34 527075.12 0.00
630743.34 526985.12 0.00
630743.34 526895.12 0.00
630743.34 526805.12 0.00
630743.34 526715.12 0.00
630743.34 526625.12 0.00
630743.34 526535.12 0.00
630743.34 526445.12 0.00
630743.34 526355.12 0.00
630743.34 526265.12 0.00
630743.34 526175.12 0.00
630743.34 526085.12 0.00
630743.34 525995.12 0.00
630743.34 525905.12 0.00
630743.34 525815.12 0.00
630743.34 525725.12 0.00
630743.34 525635.12 0.00
630743.34 525545.12 0.00
630743.34 525455.12 0.00
630743.34 525365.12 0.00
630833.34 529055.12 0.00
630833.34 528965.12 0.00
630833.34 528875.12 0.00
630833.34 528785.12 0.00
630833.34 528695.12 0.00
630833.34 528605.12 0.00
630833.34 528515.12 0.00
630833.34 528425.12 0.00
630833.34 528335.12 0.00
630833.34 528245.12 0.00
630833.34 528155.12 0.00
630833.34 528065.12 0.00
630833.34 527975.12 0.00
630833.34 527885.12 0.00
630833.34 527795.12 0.00
630833.34 527705.12 0.00
630833.34 527615.12 0.00
630833.34 527525.12 0.00
630833.34 527435.12 0.00
630833.34 527345.12 0.00
630833.34 527255.12 0.00
630833.34 527165.12 0.00
630833.34 527075.12 0.00
630833.34 526985.12 0.00
630833.34 526895.12 0.00
630833.34 526805.12 0.00
630833.34 526715.12 0.00
630833.34 526625.12 0.00
630833.34 526535.12 0.00
630833.34 526445.12 0.00
630833.34 526355.12 0.00
630833.34 526265.12 0.00
630833.34 526175.12 0.00
630833.34 526085.12 0.00
630833.34 525995.12 0.00
630833.34 525905.12 0.00
630833.34 525815.12 0.00
630833.34 525725.12 0.00
630833.34 525635.12 0.00
630833.34 525545.12 0.00
630833.34 525455.12 0.00
630833.34 525365.12 0.00
630923.34 529055.12 0.00
630923.34 528965.12 0.00
630923.34 528875.12 0.00
630923.34 528785.12 0.00
630923.34 528695.12 0.00
630923.34 528605.12 0.00
630923.34 528515.12 0.00
630923.34 528425.12 0.00
630923.34 528335.12 0.00
630923.34 528245.12 0.00
630923.34 528155.12 0.00
630923.34 528065.12 0.00
630923.34 527975.12 0.00
630923.34 527885.12 0.00
630923.34 527795.12 0.00
630923.34 527705.12 0.00
630923.34 527615.12 0.00
630923.34 527525.12 0.00
630923.34 527435.12 0.00
630923.34 527345.12 0.00
630923.34 527255.12 0.00
630923.34 527165.12 0.00
630923.34 527075.12 0.00
630923.34 526985.12 0.00
630923.34 526895.12 0.00
630923.34 526805.12 0.00
630923.34 526715.12 0.00
630923.34 526625.12 0.00
630923.34 526535.12 0.00
630923.34 526445.12 0.00
630923.34 526355.12 0.00
630923.34 526265.12 0.00
630923.34 526175.12 0.00
630923.34 526085.12 0.00
630923.34 525995.12 0.00
630923.34 525905.12 0.00
630923.34 525815.12 0.00
630923.34 525725.12 0.00
630923.34 525635.12 0.00
630923.34 525545.12 0.00
630923.34 525455.12 0.00
631013.34 529055.12 0.00
631013.34 528965.12 0.00
631013.34 528875.12 0.00
631013.34 528785.12 0.00
631013.34 528695.12 0.00
631013.34 528605.12 0.00
631013.34 528515.12 0.00
631013.34 528425.12 0.00
631013.34 528335.12 0.00
631013.34 528245.12 0.00
631013.34 528155.12 0.00
631013.34 528065.12 0.00
631013.34 527975.12 0.00
631013.34 527885.12 0.00
631013.34 527795.12 0.00
631013.34 527705.12 0.00
631013.34 527615.12 0.00
631013.34 527525.12 0.00
631013.34 527435.12 0.00
631013.34 527345.12 0.00
631013.34 527255.12 0.00
631013.34 527165.12 0.00
631013.34 527075.12 0.00
631013.34 526985.12 0.00
631013.34 526895.12 0.00
631013.34 526805.12 0.00
631013.34 526715.12 0.00
631013.34 526625.12 0.00
631013.34 526535.12 0.00
631013.34 526445.12 0.00
631013.34 526355.12 0.00
631013.34 526265.12 0.00
631013.34 526175.12 0.00
631013.34 526085.12 0.00
631013.34 525995.12 0.00
631013.34 525905.12 0.00
631013.34 525815.12 0.00
631013.34 525725.12 0.00
631013.34 525635.12 0.00
631013.34 525545.12 0.00
631013.34 525455.12 0.00
631103.34 529055.12 0.00
631103.34 528965.12 0.00
631103.34 528875.12 0.00
631103.34 528785.12 0.00
631103.34 528695.12 0.00
631103.34 528605.12 0.00
631103.34 528515.12 0.00
631103.34 528425.12 0.00
631103.34 528335.12 0.00
631103.34 528245.12 0.00
631103.34 528155.12 0.00
631103.34 528065.12 0.00
631103.34 527975.12 0.00
631103.34 527885.12 0.00
631103.34 527795.12 0.00
631103.34 527705.12 0.00
631103.34 527615.12 0.00
631103.34 527525.12 0.00
631103.34 527435.12 0.00
631103.34 527345.12 0.00
631103.34 527255.12 0.00
631103.34 527165.12 0.00
631103.34 527075.12 0.00
631103.34 526985.12 0.00
631103.34 526895.12 0.00
631103.34 526805.12 0.00
631103.34 526715.12 0.00
631103.34 526625.12 0.00
631103.34 526535.12 0.00
631103.34 526445.12 0.00
631103.34 526355.12 0.00
631103.34 526265.12 0.00
631103.34 526175.12 0.00
631103.34 526085.12 0.00
631103.34 525995.12 0.00
631103.34 525905.12 0.00
631103.34 525815.12 0.00
631103.34 525725.12 0.00
631103.34 525635.12 0.00
631103.34 525545.12 0.00
631103.34 525455.12 0.00
631193.34 529055.12 0.00
631193.34 528965.12 0.00
631193.34 528875.12 0.00
631193.34 528785.12 0.00
631193.34 528695.12 0.00
631193.34 528605.12 0.00
631193.34 528515.12 0.00
631193.34 528425.12 0.00
631193.34 528335.12 0.00
631193.34 528245.12 0.00
631193.34 528155.12 0.00
631193.34 528065.12 0.00
631193.34 527975.12 0.00
631193.34 527885.12 0.00
631193.34 527795.12 0.00
631193.34 527705.12 0.00
631193.34 527615.12 0.00
631193.34 527525.12 0.00
631193.34 527435.12 0.00
631193.34 527345.12 0.00
631193.34 527255.12 0.00
631193.34 527165.12 0.00
631193.34 527075.12 0.00
631193.34 526985.12 0.00
631193.34 526895.12 0.00
631193.34 526805.12 0.00
631193.34 526715.12 0.00
631193.34 526625.12 0.00
631193.34 526535.12 0.00
631193.34 526445.12 0.00
631193.34 526355.12 0.00
631193.34 526265.12 0.00
631193.34 526175.12 0.00
631193.34 526085.12 0.00
631193.34 525995.12 0.00
631193.34 525905.12 0.00
631193.34 525815.12 0.00
631193.34 525725.12 0.00
631193.34 525635.12 0.00
631193.34 525545.12 0.00
631193.34 525455.12 0.00
631283.34 529055.12 0.00
631283.34 528965.12 0.00
631283.34 528875.12 0.00
631283.34 528785.12 0.00
631283.34 528695.12 0.00
631283.34 528605.12 0.00
631283.34 528515.12 0.00
631283.34 528425.12 0.00
631283.34 528335.12 0.00
631283.34 528245.12 0.00
631283.34 528155.12 0.00
631283.34 528065.12 0.00
631283.34 527975.12 0.00
631283.34 527885.12 0.00
631283.34 527795.12 0.00
631283.34 527705.12 0.00
631283.34 527615.12 0.00
631283.34 527525.12 0.00
631283.34 527435.12 0.00
631283.34 527345.12 0.00
631283.34 527255.12 0.00
631283.34 527165.12 0.00
631283.34 527075.12 0.00
631283.34 526985.12 0.00
631283.34 526895.12 0.00
631283.34 526805.12 0.00
631283.34 526715.12 0.00
631283.34 526625.12 0.00
631283.34 526535.12 0.00
631283.34 526445.12 0.00
631283.34 526355.12 0.00
631283.34 526265.12 0.00
631283.34 526175.12 0.00
631283.34 526085.12 0.00
631283.34 525995.12 0.00
631283.34 525905.12 0.00
631283.34 525815.12 0.00
631283.34 525725.12 0.00
631283.34 525635.12 0.00
631283.34 525545.12 0.00
631283.34 525455.12 0.00
631373.34 529055.12 0.00
631373.34 528965.12 0.00
631373.34 528875.12 0.00
631373.34 528785.12 0.00
631373.34 528695.12 0.00
631373.34 528605.12 0.00
631373.34 528515.12 0.00
631373.34 528425.12 0.00
631373.34 528335.12 0.00
631373.34 528245.12 0.00
631373.34 528155.12 0.00
631373.34 528065.12 0.00
631373.34 527975.12 0.00
631373.34 527885.12 0.00
631373.34 527795.12 0.00
631373.34 527705.12 0.00
631373.34 527615.12 0.00
631373.34 527525.12 0.00
631373.34 527435.12 0.00
631373.34 527345.12 0.00
631373.34 527255.12 0.00
631373.34 527165.12 0.00
631373.34 527075.12 0.00
631373.34 526985.12 0.00
631373.34 526895.12 0.00
631373.34 526805.12 0.00
631373.34 526715.12 0.00
631373.34 526625.12 0.00
631373.34 526535.12 0.00
631373.34 526445.12 0.00
631373.34 526355.12 0.00
631373.34 526265.12 0.00
631373.34 526175.12 0.00
631373.34 526085.12 0.00
631373.34 525995.12 0.00
631373.34 525905.12 0.00
631373.34 525815.12 0.00
631373.34 525725.12 0.00
631373.34 525635.12 0.00
631373.34 525545.12 0.00
631373.34 525455.12 0.00
631463.34 529055.12 0.00
631463.34 528965.12 0.00
631463.34 528875.12 0.00
631463.34 528785.12 0.00
631463.34 528695.12 0.00
631463.34 528605.12 0.00
631463.34 528515.12 0.00
631463.34 528425.12 0.00
631463.34 528335.12 0.00
631463.34 528245.12 0.00
631463.34 528155.12 0.00
631463.34 528065.12 0.00
631463.34 527975.12 0.00
631463.34 527885.12 0.00
631463.34 527795.12 0.00
631463.34 527705.12 0.00
631463.34 527615.12 0.00
631463.34 527525.12 0.00
631463.34 527435.12 0.00
631463.34 527345.12 0.00
631463.34 527255.12 0.00
631463.34 527165.12 0.00
631463.34 527075.12 0.00
631463.34 526985.12 0.00
631463.34 526895.12 0.00
631463.34 526805.12 0.00
631463.34 526715.12 0.00
631463.34 526625.12 0.00
631463.34 526535.12 0.00
631463.34 526445.12 0.00
631463.34 526355.12 0.00
631463.34 526265.12 0.00
631463.34 526175.12 0.00
631463.34 526085.12 0.00
631463.34 525995.12 0.00
631463.34 525905.12 0.00
631463.34 525815.12 0.00
631463.34 525725.12 0.00
631463.34 525635.12 0.00
631463.34 525545.12 0.00
631463.34 525455.12 0.00
631553.34 529055.12 0.00
631553.34 528965.12 0.00
631553.34 528875.12 0.00
631553.34 528785.12 0.00
631553.34 528695.12 0.00
631553.34 528605.12 0.00
631553.34 528515.12 0.00
631553.34 528425.12 0.00
631553.34 528335.12 0.00
631553.34 528245.12 0.00
631553.34 528155.12 0.00
631553.34 528065.12 0.00
631553.34 527975.12 0.00
631553.34 527885.12 0.00
631553.34 527795.12 0.00
631553.34 527705.12 0.00
631553.34 527615.12 0.00
631553.34 527525.12 0.00
631553.34 527435.12 0.00
631553.34 527345.12 0.00
631553.34 527255.12 0.00
631553.34 527165.12 0.00
631553.34 527075.12 0.53
631553.34 526985.12 1.80
631553.34 526895.12 1.21
631553.34 526805.12 0.23
631553.34 526715.12 0.00
631553.34 526625.12 0.00
631553.34 526535.12 0.00
631553.34 526445.12 0.00
631553.34 526355.12 0.00
631553.34 526265.12 0.00
631553.34 526175.12 0.00
631553.34 526085.12 0.00
631553.34 525995.12 0.00
631553.34 525905.12 0.00
631553.34 525815.12 0.00
631553.34 525725.12 0.00
631553.34 525635.12 0.00
631553.34 525545.12 0.00
631553.34 525455.12 0.00
631643.34 529055.12 0.00
631643.34 528965.12 0.00
631643.34 528875.12 0.00
631643.34 528785.12 0.00
631643.34 528695.12 0.00
631643.34 528605.12 0.00
631643.34 528515.12 0.00
631643.34 528425.12 0.00
631643.34 528335.12 0.00
631643.34 528245.12 0.00
631643.34 528155.12 0.00
631643.34 528065.12 0.00
631643.34 527975.12 0.00
631643.34 527885.12 0.00
631643.34 527795.12 0.00
631643.34 527705.12 0.00
631643.34 527615.12 0.00
631643.34 527525.12 0.00
631643.34 527435.12 0.00
631643.34 527345.12 0.00
631643.34 527255.12 0.00
631643.34 527165.12 0.00
631643.34 527075.12 3.63
631643.34 526985.12 13.05
631643.34 526895.12 10.81
631643.34 526805.12 3.85
631643.34 526715.12 0.79
631643.34 526625.12 0.09
631643.34 526535.12 0.00
631643.34 526445.12 0.00
631643.34 526355.12 0.00
631643.34 526265.12 0.00
631643.34 526175.12 0.00
631643.34 526085.12 0.00
631643.34 525995.12 0.00
631643.34 525905.12 0.00
631643.34 525815.12 0.00
631643.34 525725.12 0.00
631643.34 525635.12 0.00
631643.34 525545.12 0.00
631643.34 525455.12 0.00
631733.34 529055.12 0.00
631733.34 528965.12 0.00
631733.34 528875.12 0.00
631733.34 528785.12 0.00
631733.34 528695.12 0.00
631733.34 528605.12 0.00
631733.34 528515.12 0.00
631733.34 528425.12 0.00
631733.34 528335.12 0.00
631733.34 528245.12 0.00
631733.34 528155.12 0.00
631733.34 528065.12 0.00
631733.34 527975.12 0.00
631733.34 527885.12 0.00
631733.34 527795.12 0.00
631733.34 527705.12 0.00
631733.34 527615.12 0.00
631733.34 527525.12 0.00
631733.34 527435.12 0.00
631733.34 527345.12 0.00
631733.34 527255.12 0.00
631733.34 527165.12 0.00
631733.34 527075.12 6.25
631733.34 526985.12 25.27
631733.34 526895.12 29.09
631733.34 526805.12 16.11
631733.34 526715.12 4.62
631733.34 526625.12 0.55
631733.34 526535.12 0.00
631733.34 526445.12 0.00
631733.34 526355.12 0.00
631733.34 526265.12 0.00
631733.34 526175.12 0.00
631733.34 526085.12 0.00
631733.34 525995.12 0.00
631733.34 525905.12 0.00
631733.34 525815.12 0.00
631733.34 525725.12 0.00
631733.34 525635.12 0.00
631733.34 525545.12 0.00
631733.34 525455.12 0.00
631823.34 529055.12 0.00
631823.34 528965.12 0.00
631823.34 528875.12 0.00
631823.34 528785.12 0.00
631823.34 528695.12 0.00
631823.34 528605.12 0.00
631823.34 528515.12 0.00
631823.34 528425.12 0.00
631823.34 528335.12 0.00
631823.34 528245.12 0.00
631823.34 528155.12 0.00
631823.34 528065.12 0.00
631823.34 527975.12 0.00
631823.34 527885.12 0.00
631823.34 527795.12 0.00
631823.34 527705.12 0.00
631823.34 527615.12 0.00
631823.34 527525.12 0.00
631823.34 527435.12 0.00
631823.34 527345.12 0.00
631823.34 527255.12 0.00
631823.34 527165.12 0.30
631823.34 527075.12 6.13
631823.34 526985.12 22.05
631823.34 526895.12 26.47
631823.34 526805.12 15.51
631823.34 526715.12 4.60
631823.34 526625.12 0.55
631823.34 526535.12 0.00
631823.34 526445.12 0.00
631823.34 526355.12 0.00
631823.34 526265.12 0.00
631823.34 526175.12 0.00
631823.34 526085.12 0.00
631823.34 525995.12 0.00
631823.34 525905.12 0.00
631823.34 525815.12 0.00
631823.34 525725.12 0.00
631823.34 525635.12 0.00
631823.34 525545.12 0.00
631823.34 525455.12 0.00
631913.34 529055.12 0.00
631913.34 528965.12 0.00
631913.34 528875.12 0.00
631913.34 528785.12 0.00
631913.34 528695.12 0.00
631913.34 528605.12 0.00
631913.34 528515.12 0.00
631913.34 528425.12 0.00
631913.34 528335.12 0.00
631913.34 528245.12 0.00
631913.34 528155.12 0.00
631913.34 528065.12 0.00
631913.34 527975.12 0.00
631913.34 527885.12 0.00
631913.34 527795.12 0.00
631913.34 527705.12 0.00
631913.34 527615.12 0.00
631913.34 527525.12 0.00
631913.34 527435.12 0.00
631913.34 527345.12 0.00
631913.34 527255.12 0.00
631913.34 527165.12 1.69
631913.34 527075.12 8.93
631913.34 526985.12 16.32
631913.34 526895.12 14.13
631913.34 526805.12 7.10
631913.34 526715.12 2.05
631913.34 526625.12 0.25
631913.34 526535.12 0.00
631913.34 526445.12 0.00
631913.34 526355.12 0.00
631913.34 526265.12 0.00
631913.34 526175.12 0.00
631913.34 526085.12 0.00
631913.34 525995.12 0.00
631913.34 525905.12 0.00
631913.34 525815.12 0.00
631913.34 525725.12 0.00
631913.34 525635.12 0.00
631913.34 525545.12 0.00
631913.34 525455.12 0.00
632003.34 529055.12 0.00
632003.34 528965.12 0.00
632003.34 528875.12 0.00
632003.34 528785.12 0.00
632003.34 528695.12 0.00
632003.34 528605.12 0.00
632003.34 528515.12 0.00
632003.34 528425.12 0.00
632003.34 528335.12 0.00
632003.34 528245.12 0.00
632003.34 528155.12 0.00
632003.34 528065.12 0.00
632003.34 527975.12 0.00
632003.34 527885.12 0.00
632003.34 527795.12 0.00
632003.34 527705.12 0.00
632003.34 527615.12 0.00
632003.34 527525.12 0.00
632003.34 527435.12 0.00
632003.34 527345.12 0.00
632003.34 527255.12 0.00
632003.34 527165.12 1.36
632003.34 527075.12 5.97
632003.34 526985.12 8.64
632003.34 526895.12 7.16
632003.34 526805.12 3.54
632003.34 526715.12 1.00
632003.34 526625.12 0.36
632003.34 526535.12 0.18
632003.34 526445.12 0.03
632003.34 526355.12 0.00
632003.34 526265.12 0.00
632003.34 526175.12 0.00
632003.34 526085.12 0.00
632003.34 525995.12 0.00
632003.34 525905.12 0.00
632003.34 525815.12 0.00
632003.34 525725.12 0.00
632003.34 525635.12 0.00
632003.34 525545.12 0.00
632003.34 525455.12 0.00
632093.34 529055.12 0.00
632093.34 528965.12 0.00
632093.34 528875.12 0.00
632093.34 528785.12 0.00
632093.34 528695.12 0.00
632093.34 528605.12 0.00
632093.34 528515.12 0.00
632093.34 528425.12 0.00
632093.34 528335.12 0.00
632093.34 528245.12 0.00
632093.34 528155.12 0.00
632093.34 528065.12 0.00
632093.34 527975.12 0.00
632093.34 527885.12 0.00
632093.34 527795.12 0.00
632093.34 527705.12 0.00
632093.34 527615.12 0.00
632093.34 527525.12 0.00
632093.34 527435.12 0.00
632093.34 527345.12 0.00
632093.34 527255.12 0.00
632093.34 527165.12 0.21
632093.34 527075.12 0.91
632093.34 526985.12 2.02
632093.34 526895.12 4.50
632093.34 526805.12 5.76
632093.34 526715.12 5.42
632093.34 526625.12 4.17
632093.34 526535.12 1.75
632093.34 526445.12 0.27
632093.34 526355.12 0.00
632093.34 526265.12 0.00
632093.34 526175.12 0.00
632093.34 526085.12 0.00
632093.34 525995.12 0.00
632093.34 525905.12 0.00
632093.34 525815.12 0.00
632093.34 525725.12 0.00
632093.34 525635.12 0.00
632093.34 525545.12 0.00
632093.34 525455.12 0.00
632183.34 529055.12 0.00
632183.34 528965.12 0.00
632183.34 528875.12 0.00
632183.34 528785.12 0.00
632183.34 528695.12 0.00
632183.34 528605.12 0.00
632183.34 528515.12 0.00
632183.34 528425.12 0.00
632183.34 528335.12 0.00
632183.34 528245.12 0.00
632183.34 528155.12 0.00
632183.34 528065.12 0.00
632183.34 527975.12 0.00
632183.34 527885.12 0.00
632183.34 527795.12 0.00
632183.34 527705.12 0.00
632183.34 527615.12 0.00
632183.34 527525.12 0.00
632183.34 527435.12 0.00
632183.34 527345.12 0.00
632183.34 527255.12 0.00
632183.34 527165.12 0.00
632183.34 527075.12 0.00
632183.34 526985.12 3.05
632183.34 526895.12 15.75
632183.34 526805.12 30.31
632183.34 526715.12 32.26
632183.34 526625.12 18.79
632183.34 526535.12 5.48
632183.34 526445.12 0.62
632183.34 526355.12 0.00
632183.34 526265.12 0.00
632183.34 526175.12 0.00
632183.34 526085.12 0.00
632183.34 525995.12 0.00
632183.34 525905.12 0.00
632183.34 525815.12 0.00
632183.34 525725.12 0.00
632183.34 525635.12 0.00
632183.34 525545.12 0.00
632183.34 525455.12 0.00
632273.34 529145.12 0.00
632273.34 529055.12 0.00
632273.34 528965.12 0.00
632273.34 528875.12 0.00
632273.34 528785.12 0.00
632273.34 528695.12 0.00
632273.34 528605.12 0.00
632273.34 528515.12 0.00
632273.34 528425.12 0.00
632273.34 528335.12 0.00
632273.34 528245.12 0.00
632273.34 528155.12 0.00
632273.34 528065.12 0.00
632273.34 527975.12 0.00
632273.34 527885.12 0.00
632273.34 527795.12 0.00
632273.34 527705.12 0.00
632273.34 527615.12 0.00
632273.34 527525.12 0.00
632273.34 527435.12 0.00
632273.34 527345.12 0.00
632273.34 527255.12 0.00
632273.34 527165.12 0.00
632273.34 527075.12 0.00
632273.34 526985.12 4.40
632273.34 526895.12 24.00
632273.34 526805.12 49.26
632273.34 526715.12 52.40
632273.34 526625.12 26.49
632273.34 526535.12 5.80
632273.34 526445.12 0.40
632273.34 526355.12 0.00
632273.34 526265.12 0.00
632273.34 526175.12 0.00
632273.34 526085.12 0.00
632273.34 525995.12 0.00
632273.34 525905.12 0.00
632273.34 525815.12 0.00
632273.34 525725.12 0.00
632273.34 525635.12 0.00
632273.34 525545.12 0.00
632273.34 525455.12 0.00
632363.34 529145.12 0.00
632363.34 529055.12 0.00
632363.34 528965.12 0.00
632363.34 528875.12 0.00
632363.34 528785.12 0.00
632363.34 528695.12 0.00
632363.34 528605.12 0.00
632363.34 528515.12 0.00
632363.34 528425.12 0.00
632363.34 528335.12 0.00
632363.34 528245.12 0.00
632363.34 528155.12 0.00
632363.34 528065.12 0.00
632363.34 527975.12 0.00
632363.34 527885.12 0.00
632363.34 527795.12 0.00
632363.34 527705.12 0.00
632363.34 527615.12 0.00
632363.34 527525.12 0.00
632363.34 527435.12 0.00
632363.34 527345.12 0.00
632363.34 527255.12 0.00
632363.34 527165.12 0.00
632363.34 527075.12 0.00
632363.34 526985.12 3.40
632363.34 526895.12 20.23
632363.34 526805.12 41.88
632363.34 526715.12 37.27
632363.34 526625.12 14.88
632363.34 526535.12 2.33
632363.34 526445.12 0.06
632363.34 526355.12 0.00
632363.34 526265.12 0.00
632363.34 526175.12 0.00
632363.34 526085.12 0.00
632363.34 525995.12 0.00
632363.34 525905.12 0.00
632363.34 525815.12 0.00
632363.34 525725.12 0.00
632363.34 525635.12 0.00
632363.34 525545.12 0.00
632363.34 525455.12 0.00
632453.34 529145.12 0.00
632453.34 529055.12 0.00
632453.34 528965.12 0.00
632453.34 528875.12 0.00
632453.34 528785.12 0.00
632453.34 528695.12 0.00
632453.34 528605.12 0.00
632453.34 528515.12 0.00
632453.34 528425.12 0.00
632453.34 528335.12 0.00
632453.34 528245.12 0.00
632453.34 528155.12 0.00
632453.34 528065.12 0.00
632453.34 527975.12 0.00
632453.34 527885.12 0.00
632453.34 527795.12 0.00
632453.34 527705.12 0.00
632453.34 527615.12 0.00
632453.34 527525.12 0.00
632453.34 527435.12 0.00
632453.34 527345.12 0.00
632453.34 527255.12 0.00
632453.34 527165.12 0.00
632453.34 527075.12 0.00
632453.34 526985.12 1.41
632453.34 526895.12 8.91
632453.34 526805.12 17.85
632453.34 526715.12 12.20
632453.34 526625.12 3.26
632453.34 526535.12 0.28
632453.34 526445.12 0.00
632453.34 526355.12 0.00
632453.34 526265.12 0.00
632453.34 526175.12 0.00
632453.34 526085.12 0.00
632453.34 525995.12 0.00
632453.34 525905.12 0.00
632453.34 525815.12 0.00
632453.34 525725.12 0.00
632453.34 525635.12 0.00
632453.34 525545.12 0.00
632453.34 525455.12 0.00
632543.34 529145.12 0.00
632543.34 529055.12 0.00
632543.34 528965.12 0.00
632543.34 528875.12 0.00
632543.34 528785.12 0.00
632543.34 528695.12 0.00
632543.34 528605.12 0.00
632543.34 528515.12 0.00
632543.34 528425.12 0.00
632543.34 528335.12 0.00
632543.34 528245.12 0.00
632543.34 528155.12 0.00
632543.34 528065.12 0.00
632543.34 527975.12 0.00
632543.34 527885.12 0.00
632543.34 527795.12 0.00
632543.34 527705.12 0.00
632543.34 527615.12 0.00
632543.34 527525.12 0.00
632543.34 527435.12 0.00
632543.34 527345.12 0.00
632543.34 527255.12 0.00
632543.34 527165.12 0.00
632543.34 527075.12 0.00
632543.34 526985.12 0.18
632543.34 526895.12 1.17
632543.34 526805.12 2.30
632543.34 526715.12 1.34
632543.34 526625.12 0.24
632543.34 526535.12 0.00
632543.34 526445.12 0.00
632543.34 526355.12 0.00
632543.34 526265.12 0.00
632543.34 526175.12 0.00
632543.34 526085.12 0.00
632543.34 525995.12 0.00
632543.34 525905.12 0.00
632543.34 525815.12 0.00
632543.34 525725.12 0.00
632543.34 525635.12 0.00
632543.34 525545.12 0.00
632543.34 525455.12 0.00
632633.34 529145.12 0.00
632633.34 529055.12 0.00
632633.34 528965.12 0.00
632633.34 528875.12 0.00
632633.34 528785.12 0.00
632633.34 528695.12 0.00
632633.34 528605.12 0.00
632633.34 528515.12 0.00
632633.34 528425.12 0.00
632633.34 528335.12 0.00
632633.34 528245.12 0.00
632633.34 528155.12 0.00
632633.34 528065.12 0.00
632633.34 527975.12 0.00
632633.34 527885.12 0.00
632633.34 527795.12 0.00
632633.34 527705.12 0.00
632633.34 527615.12 0.00
632633.34 527525.12 0.00
632633.34 527435.12 0.00
632633.34 527345.12 0.00
632633.34 527255.12 0.00
632633.34 527165.12 0.00
632633.34 527075.12 0.00
632633.34 526985.12 0.00
632633.34 526895.12 0.00
632633.34 526805.12 0.00
632633.34 526715.12 0.00
632633.34 526625.12 0.00
632633.34 526535.12 0.00
632633.34 526445.12 0.00
632633.34 526355.12 0.00
632633.34 526265.12 0.00
632633.34 526175.12 0.00
632633.34 526085.12 0.00
632633.34 525995.12 0.00
632633.34 525905.12 0.00
632633.34 525815.12 0.00
632633.34 525725.12 0.00
632633.34 525635.12 0.00
632633.34 525545.12 0.00
632633.34 525455.12 0.00
632723.34 529145.12 0.00
632723.34 529055.12 0.00
632723.34 528965.12 0.00
632723.34 528875.12 0.00
632723.34 528785.12 0.00
632723.34 528695.12 0.00
632723.34 528605.12 0.00
632723.34 528515.12 0.00
632723.34 528425.12 0.00
632723.34 528335.12 0.00
632723.34 528245.12 0.00
632723.34 528155.12 0.00
632723.34 528065.12 0.00
632723.34 527975.12 0.00
632723.34 527885.12 0.00
632723.34 527795.12 0.00
632723.34 527705.12 0.00
632723.34 527615.12 0.00
632723.34 527525.12 0.00
632723.34 527435.12 0.00
632723.34 527345.12 0.00
632723.34 527255.12 0.00
632723.34 527165.12 0.00
632723.34 527075.12 0.00
632723.34 526985.12 0.00
632723.34 526895.12 0.00
632723.34 526805.12 0.00
632723.34 526715.12 0.00
632723.34 526625.12 0.00
632723.34 526535.12 0.00
632723.34 526445.12 0.00
632723.34 526355.12 0.00
632723.34 526265.12 0.00
632723.34 526175.12 0.00
632723.34 526085.12 0.00
632723.34 525995.12 0.00
632723.34 525905.12 0.00
632723.34 525815.12 0.00
632723.34 525725.12 0.00
632723.34 525635.12 0.00
632723.34 525545.12 0.00
632813.34 529145.12 0.00
632813.34 529055.12 0.00
632813.34 528965.12 0.00
632813.34 528875.12 0.00
632813.34 528785.12 0.00
632813.34 528695.12 0.00
632813.34 528605.12 0.00
632813.34 528515.12 0.00
632813.34 528425.12 0.00
632813.34 528335.12 0.00
632813.34 528245.12 0.00
632813.34 528155.12 0.00
632813.34 528065.12 0.00
632813.34 527975.12 0.00
632813.34 527885.12 0.00
632813.34 527795.12 0.00
632813.34 527705.12 0.00
632813.34 527615.12 0.00
632813.34 527525.12 0.00
632813.34 527435.12 0.00
632813.34 527345.12 0.00
632813.34 527255.12 0.00
632813.34 527165.12 0.00
632813.34 527075.12 0.00
632813.34 526985.12 0.00
632813.34 526895.12 0.00
632813.34 526805.12 0.00
632813.34 526715.12 0.00
632813.34 526625.12 0.00
632813.34 526535.12 0.00
632813.34 526445.12 0.00
632813.34 526355.12 0.00
632813.34 526265.12 0.00
632813.34 526175.12 0.00
632813.34 526085.12 0.00
632813.34 525995.12 0.00
632813.34 525905.12 0.00
632813.34 525815.12 0.00
632813.34 525725.12 0.00
632813.34 525635.12 0.00
632813.34 525545.12 0.00
632903.34 529145.12 0.00
632903.34 529055.12 0.00
632903.34 528965.12 0.00
632903.34 528875.12 0.00
632903.34 528785.12 0.00
632903.34 528695.12 0.00
632903.34 528605.12 0.00
632903.34 528515.12 0.00
632903.34 528425.12 0.00
632903.34 528335.12 0.00
632903.34 528245.12 0.00
632903.34 528155.12 0.00
632903.34 528065.12 0.00
632903.34 527975.12 0.00
632903.34 527885.12 0.00
632903.34 527795.12 0.00
632903.34 527705.12 0.00
632903.34 527615.12 0.00
632903.34 527525.12 0.00
632903.34 527435.12 0.00
632903.34 527345.12 0.00
632903.34 527255.12 0.00
632903.34 527165.12 0.00
632903.34 527075.12 0.00
632903.34 526985.12 0.00
632903.34 526895.12 0.00
632903.34 526805.12 0.00
632903.34 526715.12 0.00
632903.34 526625.12 0.00
632903.34 526535.12 0.00
632903.34 526445.12 0.00
632903.34 526355.12 0.00
632903.34 526265.12 0.00
632903.34 526175.12 0.00
632903.34 526085.12 0.00
632903.34 525995.12 0.00
632903.34 525905.12 0.00
632903.34 525815.12 0.00
632903.34 525725.12 0.00
632903.34 525635.12 0.00
632903.34 525545.12 0.00
632993.34 529145.12 0.00
632993.34 529055.12 0.00
632993.34 528965.12 0.00
632993.34 528875.12 0.00
632993.34 528785.12 0.00
632993.34 528695.12 0.00
632993.34 528605.12 0.00
632993.34 528515.12 0.00
632993.34 528425.12 0.00
632993.34 528335.12 0.00
632993.34 528245.12 0.00
632993.34 528155.12 0.00
632993.34 528065.12 0.00
632993.34 527975.12 0.00
632993.34 527885.12 0.00
632993.34 527795.12 0.00
632993.34 527705.12 0.00
632993.34 527615.12 0.00
632993.34 527525.12 0.00
632993.34 527435.12 0.00
632993.34 527345.12 0.00
632993.34 527255.12 0.00
632993.34 527165.12 0.00
632993.34 527075.12 0.00
632993.34 526985.12 0.00
632993.34 526895.12 0.00
632993.34 526805.12 0.00
632993.34 526715.12 0.00
632993.34 526625.12 0.00
632993.34 526535.12 0.00
632993.34 526445.12 0.00
632993.34 526355.12 0.00
632993.34 526265.12 0.00
632993.34 526175.12 0.00
632993.34 526085.12 0.00
632993.34 525995.12 0.00
632993.34 525905.12 0.00
632993.34 525815.12 0.00
632993.34 525725.12 0.00
632993.34 525635.12 0.00
632993.34 525545.12 0.00
633083.34 529145.12 0.00
633083.34 529055.12 0.00
633083.34 528965.12 0.00
633083.34 528875.12 0.00
633083.34 528785.12 0.00
633083.34 528695.12 0.00
633083.34 528605.12 0.00
633083.34 528515.12 0.00
633083.34 528425.12 0.00
633083.34 528335.12 0.00
633083.34 528245.12 0.00
633083.34 528155.12 0.00
633083.34 528065.12 0.00
633083.34 527975.12 0.00
633083.34 527885.12 0.00
633083.34 527795.12 0.00
633083.34 527705.12 0.00
633083.34 527615.12 0.00
633083.34 527525.12 0.00
633083.34 527435.12 0.00
633083.34 527345.12 0.00
633083.34 527255.12 0.00
633083.34 527165.12 0.00
633083.34 527075.12 0.00
633083.34 526985.12 0.00
633083.34 526895.12 0.00
633083.34 526805.12 0.00
633083.34 526715.12 0.00
633083.34 526625.12 0.00
633083.34 526535.12 0.00
633083.34 526445.12 0.00
633083.34 526355.12 0.00
633083.34 526265.12 0.00
633083.34 526175.12 0.00
633083.34 526085.12 0.00
633083.34 525995.12 0.00
633083.34 525905.12 0.00
633083.34 525815.12 0.00
633083.34 525725.12 0.00
633083.34 525635.12 0.00
633083.34 525545.12 0.00
633173.34 527615.12 0.00
633173.34 527525.12 0.00
633173.34 527435.12 0.00
633173.34 527345.12 0.00
633173.34 527255.12 0.00
633173.34 527165.12 0.00
633173.34 527075.12 0.00
633173.34 526985.12 0.00
633173.34 526895.12 0.00
633173.34 526805.12 0.00
633173.34 526715.12 0.00
633173.34 526625.12 0.00
633173.34 526535.12 0.00
633173.34 526445.12 0.00
633173.34 526355.12 0.00
633173.34 526265.12 0.00
633173.34 526175.12 0.00
633173.34 526085.12 0.00
633173.34 525995.12 0.00
633173.34 525905.12 0.00
633173.34 525815.12 0.00
633173.34 525725.12 0.00
633173.34 525635.12 0.00
633173.34 525545.12 0.00
633263.34 525905.12 0.00
633263.34 525815.12 0.00
633263.34 525725.12 0.00
633263.34 525635.12 0.00
633263.34 525545.12 0.00
